ply
format ascii 1.0
element vertex 1175
property float x
property float y
property float z
property uchar red
property uchar green
property uchar blue
end_header
-1.482070 0.697065 -5.893333 128 128 128
-1.493333 0.686810 -5.866667 128 128 128
-1.872879 0.956669 -5.983137 128 128 128
-1.893333 0.941555 -5.956471 128 128 128
-1.866667 0.918501 -5.946667 128 128 128
-1.800723 0.936946 -5.939419 128 128 128
-1.786667 0.920229 -5.966086 128 128 128
-1.813333 0.916898 -5.973334 128 128 128
-1.700998 0.885397 -5.943486 128 128 128
-1.753457 0.943283 -5.992753 128 128 128
-1.685227 0.826667 -5.947189 128 128 128
-1.706225 0.853333 -5.943486 128 128 128
-1.685227 0.794821 -5.923703 128 128 128
-1.628347 0.796320 -5.977036 128 128 128
-1.653333 0.791141 -5.950370 128 128 128
-1.609919 0.796320 -5.962314 128 128 128
-1.636586 0.791141 -5.946667 128 128 128
-1.537805 0.714989 -5.930645 128 128 128
-1.508737 0.714989 -5.930645 128 128 128
-1.848753 0.957736 -6.053334 128 128 128
-1.846212 0.954404 -6.026667 128 128 128
-1.773460 0.943283 -6.050352 128 128 128
-1.800127 0.941019 -6.053334 128 128 128
-1.813333 0.937687 -6.026667 128 128 128
-1.601680 0.796320 -6.003173 128 128 128
-1.362146 0.718439 -6.002054 128 128 128
-1.358531 0.718439 -6.002054 128 128 128
-1.842540 0.957736 -6.085938 128 128 128
4.794476 2.507849 -2.080366 128 128 128
4.781089 2.506667 -2.107033 128 128 128
4.769293 2.533333 -2.133333 128 128 128
4.786613 2.477481 -2.107033 128 128 128
4.784647 2.450814 -2.106667 128 128 128
4.766029 2.426667 -2.133333 128 128 128
4.715665 2.329551 -2.153223 128 128 128
4.715665 2.293333 -2.129621 128 128 128
4.700148 2.266667 -2.136398 128 128 128
4.637813 2.165346 -2.154349 128 128 128
4.637813 2.133333 -2.137296 128 128 128
4.630519 2.106667 -2.142947 128 128 128
4.760098 2.533333 -2.186667 128 128 128
4.756235 2.506667 -2.213333 128 128 128
4.752337 2.453333 -2.186667 128 128 128
4.752658 2.426667 -2.213333 128 128 128
4.713081 2.340537 -2.213333 128 128 128
4.708746 2.329551 -2.186667 128 128 128
4.741651 2.382884 -2.186667 128 128 128
4.733602 2.367204 -2.213333 128 128 128
4.693228 2.293333 -2.186667 128 128 128
4.690191 2.266667 -2.213333 128 128 128
4.637813 2.165346 -2.162139 128 128 128
4.654541 2.165346 -2.188806 128 128 128
4.665689 2.192013 -2.186667 128 128 128
4.684984 2.213333 -2.213333 128 128 128
4.632706 2.106667 -2.170395 128 128 128
4.630519 2.133333 -2.162139 128 128 128
4.664211 2.133333 -2.215472 128 128 128
4.649671 2.106667 -2.197061 128 128 128
4.628835 2.026667 -2.181231 128 128 128
4.621542 2.053333 -2.168256 128 128 128
4.657568 2.053333 -2.221589 128 128 128
4.647898 2.026667 -2.207898 128 128 128
4.627768 1.946667 -2.186307 128 128 128
4.616603 1.973333 -2.172976 128 128 128
4.655117 1.973333 -2.226309 128 128 128
4.647219 1.946667 -2.212974 128 128 128
4.784342 2.486528 -2.286526 128 128 128
4.768936 2.513194 -2.293333 128 128 128
4.754217 2.533333 -2.266667 128 128 128
4.807293 2.486528 -2.313193 128 128 128
4.795173 2.440035 -2.313193 128 128 128
4.779515 2.453333 -2.286526 128 128 128
4.766450 2.426667 -2.266667 128 128 128
4.807293 2.466702 -2.313193 128 128 128
4.713081 2.330987 -2.253252 128 128 128
4.736501 2.330987 -2.279919 128 128 128
4.750103 2.357653 -2.266667 128 128 128
4.771943 2.373333 -2.293333 128 128 128
4.712628 2.266667 -2.265140 128 128 128
4.705709 2.293333 -2.253252 128 128 128
4.751589 2.293333 -2.306586 128 128 128
4.735087 2.266667 -2.291807 128 128 128
4.707873 2.186667 -2.271312 128 128 128
4.700501 2.213333 -2.251888 128 128 128
4.741632 2.213333 -2.305222 128 128 128
4.726545 2.186667 -2.297978 128 128 128
4.703004 2.106667 -2.279675 128 128 128
4.690877 2.133333 -2.259423 128 128 128
4.731807 2.133333 -2.312757 128 128 128
4.725262 2.106667 -2.306342 128 128 128
4.718266 2.032964 -2.313585 128 128 128
4.701270 2.053333 -2.286918 128 128 128
4.682501 2.026667 -2.266667 128 128 128
4.725262 2.059630 -2.313585 128 128 128
4.680049 1.973333 -2.266667 128 128 128
4.695430 1.946667 -2.293333 128 128 128
4.784595 2.539861 -2.344084 128 128 128
4.798358 2.491740 -2.394493 128 128 128
4.801808 2.518407 -2.394493 128 128 128
4.809102 2.506667 -2.367827 128 128 128
4.801808 2.539861 -2.370750 128 128 128
4.809103 2.513194 -2.346667 128 128 128
4.798358 2.466702 -2.367827 128 128 128
4.793531 2.440035 -2.346667 128 128 128
4.782632 2.426667 -2.373333 128 128 128
4.807293 2.466702 -2.341160 128 128 128
4.774108 2.373333 -2.346667 128 128 128
4.766306 2.346667 -2.373333 128 128 128
4.788421 2.247158 -2.366005 128 128 128
4.775792 2.273824 -2.373333 128 128 128
4.765627 2.293333 -2.346667 128 128 128
4.803060 2.247158 -2.392672 128 128 128
4.794133 2.201873 -2.392672 128 128 128
4.782554 2.213333 -2.366005 128 128 128
4.762432 2.186667 -2.346667 128 128 128
4.803060 2.228539 -2.392672 128 128 128
4.752607 2.133333 -2.346667 128 128 128
4.764870 2.106667 -2.373333 128 128 128
4.718266 2.006297 -2.323709 128 128 128
4.735518 2.006297 -2.350376 128 128 128
4.740780 2.032964 -2.346667 128 128 128
4.759588 2.053333 -2.373333 128 128 128
4.716611 1.946667 -2.336871 128 128 128
4.714877 1.973333 -2.323709 128 128 128
4.739748 1.973333 -2.377043 128 128 128
4.724230 1.946667 -2.363538 128 128 128
4.795661 2.545073 -2.434065 128 128 128
4.794019 2.518407 -2.426667 128 128 128
4.785580 2.506667 -2.453333 128 128 128
4.801808 2.545073 -2.407399 128 128 128
4.779019 2.453333 -2.426667 128 128 128
4.764817 2.426667 -2.453333 128 128 128
4.760627 2.373333 -2.426667 128 128 128
4.756429 2.346667 -2.453333 128 128 128
4.787372 2.273824 -2.416285 128 128 128
4.784160 2.266667 -2.442952 128 128 128
4.769063 2.293333 -2.453333 128 128 128
4.803060 2.247158 -2.416285 128 128 128
4.796789 2.228539 -2.442952 128 128 128
4.790923 2.201873 -2.426667 128 128 128
4.781959 2.186667 -2.453333 128 128 128
4.803060 2.228539 -2.416285 128 128 128
4.777310 2.133333 -2.426667 128 128 128
4.773035 2.106667 -2.453333 128 128 128
4.770851 2.053333 -2.426667 128 128 128
4.762912 2.026667 -2.453333 128 128 128
4.750618 1.973333 -2.426667 128 128 128
4.739412 1.946667 -2.453333 128 128 128
4.775800 2.533333 -2.506667 128 128 128
4.772941 2.506667 -2.533333 128 128 128
4.784155 2.413637 -2.526224 128 128 128
4.776957 2.440303 -2.533333 128 128 128
4.768518 2.453333 -2.506667 128 128 128
4.804303 2.413637 -2.552891 128 128 128
4.784903 2.346667 -2.515724 128 128 128
4.769057 2.373333 -2.499558 128 128 128
4.811044 2.373333 -2.552891 128 128 128
4.806742 2.346667 -2.542391 128 128 128
4.796789 2.266667 -2.501697 128 128 128
4.781692 2.293333 -2.496166 128 128 128
4.814530 2.293333 -2.549500 128 128 128
4.807788 2.266667 -2.528364 128 128 128
4.791036 2.186667 -2.501026 128 128 128
4.787825 2.213333 -2.485531 128 128 128
4.812639 2.213333 -2.538864 128 128 128
4.804851 2.186667 -2.527693 128 128 128
4.799711 2.107695 -2.548829 128 128 128
4.790747 2.133333 -2.522162 128 128 128
4.780605 2.106667 -2.506667 128 128 128
4.804851 2.134362 -2.548829 128 128 128
4.773772 2.053333 -2.506667 128 128 128
4.779291 2.026667 -2.533333 128 128 128
4.757226 1.973333 -2.506667 128 128 128
4.761107 1.946667 -2.533333 128 128 128
4.486885 2.326676 -3.202801 128 128 128
4.486885 2.297024 -3.229468 128 128 128
4.491029 2.270358 -3.253333 128 128 128
4.517056 2.266667 -3.226667 128 128 128
4.533993 2.213333 -3.226667 128 128 128
4.511837 2.186667 -3.253333 128 128 128
4.527723 2.133333 -3.226667 128 128 128
4.505646 2.106667 -3.253333 128 128 128
4.516671 2.053333 -3.226667 128 128 128
4.498216 2.026667 -3.253333 128 128 128
4.481575 1.963514 -3.275756 128 128 128
4.495312 1.946667 -3.249090 128 128 128
4.510208 1.973333 -3.226667 128 128 128
4.484144 2.243691 -3.282497 128 128 128
4.488014 2.186667 -3.282784 128 128 128
4.484144 2.213333 -3.285282 128 128 128
4.485616 2.106667 -3.282151 128 128 128
4.483871 2.133333 -3.284935 128 128 128
4.483320 2.026667 -3.282229 128 128 128
4.481745 2.053333 -3.284380 128 128 128
4.481575 1.990180 -3.282229 128 128 128
-1.932065 -0.168110 -4.087265 128 128 128
-2.055939 -0.063749 -4.177441 128 128 128
-1.939945 -0.006245 -4.191951 128 128 128
-1.965014 -0.032912 -4.186667 128 128 128
-1.990081 -0.053333 -4.213333 128 128 128
-2.055939 -0.085256 -4.204108 128 128 128
-2.029272 -0.086276 -4.186667 128 128 128
-2.026667 -0.087964 -4.213333 128 128 128
-1.996803 -0.081020 -4.186667 128 128 128
-1.998401 -0.082708 -4.213333 128 128 128
-2.149608 -0.231022 -4.228951 128 128 128
-2.007679 -0.026667 -4.284797 128 128 128
-2.029330 -0.053333 -4.295334 128 128 128
-1.991680 -0.053333 -4.242000 128 128 128
-1.993279 -0.026667 -4.258131 128 128 128
-2.021651 -0.081688 -4.268667 128 128 128
-2.048317 -0.086260 -4.293334 128 128 128
-2.053333 -0.091516 -4.266667 128 128 128
-1.998401 -0.081688 -4.242000 128 128 128
-2.149608 -0.218875 -4.266667 128 128 128
-2.139637 -0.227853 -4.293334 128 128 128
-2.190410 -0.230122 -4.396662 128 128 128
-2.186667 -0.217974 -4.369995 128 128 128
-2.213333 -0.215234 -4.346667 128 128 128
-2.217077 -0.203455 -4.416899 128 128 128
-2.205329 -0.186667 -4.443566 128 128 128
-2.191787 -0.213333 -4.453333 128 128 128
-1.946667 -0.314124 -4.433595 128 128 128
-1.973333 -0.299777 -4.455400 128 128 128
-1.932850 -0.026667 -5.185141 128 128 128
-1.933131 -0.053333 -5.199612 128 128 128
-1.920281 -0.080823 -5.199612 128 128 128
-2.314711 -0.239494 -5.131854 128 128 128
-2.329980 -0.240880 -5.185187 128 128 128
-2.314711 -0.240880 -5.158520 128 128 128
-2.288044 -0.244945 -5.146667 128 128 128
-2.266667 -0.251153 -5.173334 128 128 128
-2.216178 -0.276940 -5.146667 128 128 128
-2.190351 -0.299542 -5.173334 128 128 128
-2.162845 -0.358798 -5.132929 128 128 128
-2.164822 -0.373333 -5.159596 128 128 128
-2.165661 -0.346667 -5.173334 128 128 128
-2.133891 -0.385465 -5.132929 128 128 128
-2.392992 -0.011764 -5.208490 128 128 128
-1.956684 -0.026667 -5.226667 128 128 128
-1.954315 -0.053333 -5.253334 128 128 128
-1.920281 -0.107490 -5.213254 128 128 128
-1.934703 -0.133333 -5.239921 128 128 128
-1.945184 -0.106667 -5.253334 128 128 128
-2.383313 -0.237741 -5.213922 128 128 128
-1.934422 -0.171918 -5.266588 128 128 128
-2.401813 -0.241128 -5.267255 128 128 128
-2.383313 -0.241128 -5.240588 128 128 128
-2.356647 -0.242009 -5.226667 128 128 128
-2.346667 -0.242424 -5.253334 128 128 128
-2.266667 -0.264356 -5.226667 128 128 128
-2.293333 -0.258563 -5.253334 128 128 128
-2.214173 -0.290142 -5.226667 128 128 128
-2.199668 -0.310601 -5.253334 128 128 128
-2.161977 -0.380508 -5.231650 128 128 128
-2.174139 -0.353842 -5.253334 128 128 128
-2.174978 -0.346667 -5.226667 128 128 128
-2.106667 -0.381265 -5.240599 128 128 128
-2.133333 -0.361773 -5.258317 128 128 128
-2.063462 -0.381265 -5.262283 128 128 128
-2.174050 -0.434221 -5.258317 128 128 128
-2.176026 -0.426667 -5.231650 128 128 128
-2.190868 -0.453333 -5.226667 128 128 128
-2.007346 -0.026667 -5.337047 128 128 128
-2.012690 -0.053333 -5.350817 128 128 128
-2.005343 -0.100067 -5.350817 128 128 128
-2.340590 -0.237038 -5.335238 128 128 128
-2.311010 -0.237038 -5.335238 128 128 128
-2.403488 -0.241073 -5.333333 128 128 128
-2.401813 -0.242202 -5.306667 128 128 128
-2.340590 -0.240416 -5.308571 128 128 128
-2.367257 -0.241489 -5.333333 128 128 128
-2.373333 -0.242617 -5.306667 128 128 128
-2.284344 -0.256304 -5.335238 128 128 128
-2.293333 -0.256720 -5.308571 128 128 128
-2.266667 -0.273987 -5.306667 128 128 128
-2.172162 -0.318719 -5.329164 128 128 128
-2.198828 -0.309320 -5.306667 128 128 128
-2.213333 -0.298957 -5.333333 128 128 128
-2.106667 -0.315071 -5.344376 128 128 128
-2.133333 -0.313790 -5.355830 128 128 128
-2.071658 -0.315071 -5.348546 128 128 128
-2.172162 -0.327175 -5.302497 128 128 128
-2.133333 -0.335107 -5.302497 128 128 128
-2.106667 -0.327932 -5.317709 128 128 128
-2.063462 -0.354599 -5.295212 128 128 128
-2.055120 -0.346667 -5.321879 128 128 128
-2.048656 -0.373333 -5.333333 128 128 128
-2.266667 -0.475925 -5.342336 128 128 128
-2.293333 -0.475312 -5.343604 128 128 128
-2.200716 -0.460888 -5.305398 128 128 128
-2.213333 -0.456813 -5.332065 128 128 128
-2.186667 -0.453842 -5.333333 128 128 128
-2.096628 -0.463199 -5.328986 128 128 128
-2.123294 -0.444087 -5.306667 128 128 128
-2.133333 -0.441116 -5.333333 128 128 128
-2.037982 -0.026667 -5.386667 128 128 128
-2.055923 -0.053333 -5.413333 128 128 128
-2.005343 -0.126734 -5.363084 128 128 128
-2.025103 -0.133333 -5.389751 128 128 128
-2.050391 -0.106667 -5.413333 128 128 128
-2.455009 -0.215596 -5.385578 128 128 128
-2.423891 -0.233976 -5.417457 128 128 128
-2.340590 -0.237038 -5.386644 128 128 128
-2.373348 -0.233976 -5.417457 128 128 128
-2.311010 -0.237038 -5.386644 128 128 128
-2.019760 -0.186667 -5.402530 128 128 128
-2.037165 -0.213333 -5.426113 128 128 128
-2.423891 -0.241073 -5.390790 128 128 128
-2.450558 -0.241793 -5.413333 128 128 128
-2.428342 -0.241073 -5.385578 128 128 128
-2.453333 -0.241793 -5.412245 128 128 128
-2.346681 -0.240008 -5.417457 128 128 128
-2.373333 -0.241081 -5.390790 128 128 128
-2.340590 -0.240008 -5.413311 128 128 128
-2.367257 -0.241081 -5.386667 128 128 128
-2.311010 -0.240008 -5.413311 128 128 128
-2.284344 -0.256312 -5.386667 128 128 128
-2.266667 -0.275419 -5.413333 128 128 128
-2.186667 -0.298682 -5.386667 128 128 128
-2.213333 -0.292404 -5.413333 128 128 128
-2.106667 -0.303154 -5.386667 128 128 128
-2.133333 -0.298409 -5.413333 128 128 128
-2.071658 -0.304436 -5.386667 128 128 128
-2.057987 -0.309364 -5.413333 128 128 128
-2.017405 -0.259966 -5.426113 128 128 128
-2.085613 -0.382936 -5.428467 128 128 128
-2.066329 -0.356270 -5.428467 128 128 128
-2.059865 -0.373333 -5.401801 128 128 128
-2.051523 -0.346667 -5.386667 128 128 128
-2.266667 -0.475312 -5.363171 128 128 128
-2.293333 -0.479387 -5.364009 128 128 128
-2.224612 -0.475925 -5.389838 128 128 128
-2.197945 -0.467652 -5.413333 128 128 128
-2.186667 -0.464681 -5.386667 128 128 128
-2.085613 -0.409866 -5.401801 128 128 128
-2.112280 -0.428259 -5.413333 128 128 128
-2.133333 -0.451955 -5.386667 128 128 128
-2.098449 -0.026667 -5.473071 128 128 128
-2.110258 -0.053333 -5.496259 128 128 128
-2.091810 -0.106667 -5.477025 128 128 128
-2.103879 -0.133333 -5.500766 128 128 128
-2.450558 -0.233976 -5.444152 128 128 128
-2.453333 -0.228824 -5.470819 128 128 128
-2.426667 -0.223875 -5.493334 128 128 128
-2.373348 -0.229028 -5.466667 128 128 128
-2.355379 -0.235052 -5.493334 128 128 128
-2.092070 -0.186667 -5.482528 128 128 128
-2.103887 -0.213333 -5.501762 128 128 128
-2.063832 -0.213333 -5.448429 128 128 128
-2.073093 -0.186667 -5.455861 128 128 128
-2.480850 -0.240720 -5.444152 128 128 128
-2.477225 -0.240720 -5.444152 128 128 128
-2.328712 -0.244646 -5.493334 128 128 128
-2.320014 -0.244654 -5.466667 128 128 128
-2.266667 -0.269849 -5.466667 128 128 128
-2.293333 -0.255388 -5.493334 128 128 128
-2.186667 -0.288383 -5.466667 128 128 128
-2.213333 -0.282124 -5.493334 128 128 128
-2.091817 -0.256031 -5.475095 128 128 128
-2.118484 -0.268314 -5.493334 128 128 128
-2.133333 -0.285307 -5.466667 128 128 128
-2.026667 -0.283126 -5.475095 128 128 128
-2.044072 -0.259966 -5.448429 128 128 128
-2.031267 -0.289826 -5.501762 128 128 128
-2.066329 -0.282698 -5.448429 128 128 128
-2.044263 -0.293333 -5.475095 128 128 128
-2.085613 -0.382936 -5.449210 128 128 128
-2.059867 -0.382936 -5.475876 128 128 128
-2.046196 -0.356270 -5.466667 128 128 128
-2.024130 -0.346667 -5.493334 128 128 128
-2.165084 -0.469208 -5.493334 128 128 128
-2.176362 -0.471727 -5.466667 128 128 128
-2.138947 -0.442542 -5.466667 128 128 128
-2.112280 -0.450815 -5.484963 128 128 128
-2.085613 -0.426667 -5.467506 128 128 128
-2.126865 -0.477481 -5.511630 128 128 128
-2.176905 -0.026667 -5.583291 128 128 128
-2.181867 -0.053333 -5.594598 128 128 128
-2.136925 -0.053333 -5.541265 128 128 128
-2.151782 -0.026667 -5.556624 128 128 128
-2.164962 -0.106667 -5.592637 128 128 128
-2.166636 -0.133333 -5.598039 128 128 128
-2.130546 -0.133333 -5.544706 128 128 128
-2.145143 -0.106667 -5.565969 128 128 128
-2.543097 -0.169199 -5.569297 128 128 128
-2.516430 -0.190713 -5.546667 128 128 128
-2.506667 -0.207457 -5.573334 128 128 128
-2.426667 -0.215447 -5.546667 128 128 128
-2.453333 -0.210473 -5.573334 128 128 128
-2.382032 -0.220600 -5.546667 128 128 128
-2.364142 -0.225548 -5.573334 128 128 128
-2.161674 -0.186667 -5.595087 128 128 128
-2.166030 -0.213333 -5.597048 128 128 128
-2.130554 -0.213333 -5.543715 128 128 128
-2.145403 -0.186667 -5.568420 128 128 128
-2.337476 -0.248581 -5.573334 128 128 128
-2.328698 -0.253227 -5.546667 128 128 128
-2.266667 -0.263863 -5.546667 128 128 128
-2.293333 -0.261710 -5.573334 128 128 128
-2.164356 -0.252283 -5.570382 128 128 128
-2.191023 -0.260766 -5.573334 128 128 128
-2.213333 -0.271499 -5.546667 128 128 128
-2.145151 -0.252283 -5.543715 128 128 128
-2.165084 -0.477481 -5.522583 128 128 128
-2.134730 -0.477481 -5.549249 128 128 128
-2.108063 -0.469732 -5.573334 128 128 128
-2.126865 -0.477481 -5.542890 128 128 128
-2.106667 -0.469732 -5.569557 128 128 128
-2.453333 -0.010206 -5.664133 128 128 128
-2.426667 -0.023905 -5.672533 128 128 128
-2.383319 -0.013699 -5.672533 128 128 128
-2.254058 -0.012817 -5.666069 128 128 128
-2.230238 -0.012817 -5.639402 128 128 128
-2.224689 -0.039483 -5.653334 128 128 128
-2.202984 -0.053333 -5.626667 128 128 128
-2.187753 -0.106667 -5.626667 128 128 128
-2.201250 -0.133333 -5.653334 128 128 128
-2.506667 -0.205593 -5.626667 128 128 128
-2.533333 -0.200935 -5.653334 128 128 128
-2.433262 -0.232983 -5.676804 128 128 128
-2.426667 -0.218531 -5.650138 128 128 128
-2.453333 -0.208609 -5.626667 128 128 128
-2.382111 -0.225548 -5.623471 128 128 128
-2.184488 -0.186667 -5.626667 128 128 128
-2.206440 -0.213333 -5.653334 128 128 128
-2.406595 -0.242695 -5.676804 128 128 128
-2.382111 -0.242695 -5.650138 128 128 128
-2.355444 -0.251276 -5.626667 128 128 128
-2.346667 -0.252327 -5.653334 128 128 128
-2.266667 -0.259434 -5.626667 128 128 128
-2.293333 -0.252002 -5.653334 128 128 128
-2.214649 -0.248483 -5.626667 128 128 128
-2.236959 -0.250853 -5.653334 128 128 128
-2.081396 -0.472251 -5.603992 128 128 128
-2.515729 -0.053333 -5.724279 128 128 128
-2.489062 -0.034368 -5.748078 128 128 128
-2.542395 -0.052265 -5.709535 128 128 128
-2.489062 -0.010206 -5.724101 128 128 128
-2.515729 -0.035804 -5.706667 128 128 128
-2.465037 -0.061034 -5.748078 128 128 128
-2.470486 -0.010206 -5.724101 128 128 128
-2.443819 -0.023098 -5.733334 128 128 128
-2.426667 -0.036797 -5.706667 128 128 128
-2.356653 -0.013699 -5.686105 128 128 128
-2.346667 -0.036288 -5.712772 128 128 128
-2.373333 -0.049180 -5.733334 128 128 128
-2.288841 -0.075922 -5.740972 128 128 128
-2.266667 -0.062072 -5.714304 128 128 128
-2.293333 -0.035405 -5.712772 128 128 128
-2.280725 -0.012817 -5.686105 128 128 128
-2.234451 -0.066150 -5.687638 128 128 128
-2.510008 -0.147844 -5.759105 128 128 128
-2.533333 -0.121178 -5.735306 128 128 128
-2.506667 -0.106667 -5.723384 128 128 128
-2.461004 -0.106667 -5.748078 128 128 128
-2.475968 -0.133333 -5.747184 128 128 128
-2.262174 -0.106667 -5.726984 128 128 128
-2.277955 -0.133333 -5.746013 128 128 128
-2.226243 -0.133333 -5.692679 128 128 128
-2.234451 -0.106667 -5.700317 128 128 128
-2.483342 -0.179649 -5.732439 128 128 128
-2.510008 -0.184447 -5.733334 128 128 128
-2.533333 -0.196533 -5.706667 128 128 128
-2.459929 -0.206316 -5.705772 128 128 128
-2.455896 -0.186667 -5.732439 128 128 128
-2.432492 -0.213333 -5.733334 128 128 128
-2.335842 -0.232666 -5.738829 128 128 128
-2.309114 -0.205999 -5.738829 128 128 128
-2.282448 -0.186667 -5.724841 128 128 128
-2.266667 -0.213333 -5.704774 128 128 128
-2.228751 -0.213333 -5.686599 128 128 128
-2.231792 -0.186667 -5.699279 128 128 128
-2.409858 -0.241933 -5.733334 128 128 128
-2.406595 -0.244628 -5.706667 128 128 128
-2.335842 -0.241051 -5.712162 128 128 128
-2.362509 -0.242984 -5.733334 128 128 128
-2.373333 -0.245679 -5.706667 128 128 128
-2.293333 -0.243421 -5.685495 128 128 128
-2.266667 -0.242370 -5.692095 128 128 128
-2.236959 -0.242370 -5.686599 128 128 128
-1.219007 -0.026667 -3.306667 128 128 128
-1.223404 -0.053333 -3.333333 128 128 128
-1.227421 -0.026667 -3.386667 128 128 128
-1.229875 -0.053333 -3.413333 128 128 128
-1.247810 -0.053333 -3.455418 128 128 128
-1.263701 -0.026667 -3.472288 128 128 128
-2.186667 1.450728 -5.087165 128 128 128
-2.213333 1.462838 -5.104639 128 128 128
4.378543 3.146667 -3.224536 128 128 128
4.374790 3.173333 -3.210561 128 128 128
4.426159 3.173333 -3.263894 128 128 128
4.404053 3.146667 -3.251202 128 128 128
4.373895 3.066667 -3.234562 128 128 128
4.352438 3.093333 -3.213975 128 128 128
4.405717 3.093333 -3.267308 128 128 128
4.401664 3.066667 -3.261229 128 128 128
4.302331 2.985430 -3.209712 128 128 128
4.335422 2.985430 -3.236378 128 128 128
4.335983 3.012096 -3.226667 128 128 128
4.362650 3.004163 -3.253333 128 128 128
4.373895 3.030829 -3.247254 128 128 128
4.401664 3.030829 -3.273920 128 128 128
3.843794 2.896424 -3.278554 128 128 128
4.239333 2.881732 -3.200263 128 128 128
4.266375 2.881732 -3.226930 128 128 128
4.275373 2.908398 -3.226667 128 128 128
4.302040 2.907253 -3.253333 128 128 128
4.302331 2.933920 -3.236378 128 128 128
4.335422 2.933920 -3.263045 128 128 128
3.854419 2.853333 -3.278554 128 128 128
3.850625 2.826667 -3.275157 128 128 128
4.239333 2.879448 -3.200263 128 128 128
4.260520 2.852781 -3.200263 128 128 128
4.286895 2.853333 -3.226930 128 128 128
4.302616 2.826667 -3.253333 128 128 128
3.858866 2.773333 -3.276603 128 128 128
3.848242 2.746667 -3.274155 128 128 128
4.313854 2.756487 -3.201664 128 128 128
4.293756 2.746667 -3.228331 128 128 128
4.282810 2.773333 -3.253333 128 128 128
4.322636 2.729821 -3.201664 128 128 128
3.850429 2.693333 -3.277552 128 128 128
3.842187 2.666667 -3.277093 128 128 128
4.299902 2.693333 -3.237280 128 128 128
4.283286 2.666667 -3.262282 128 128 128
4.334924 2.666667 -3.208949 128 128 128
4.322636 2.693333 -3.210613 128 128 128
3.842187 2.638330 -3.279541 128 128 128
4.149686 2.563168 -3.204229 128 128 128
4.177308 2.563168 -3.230896 128 128 128
4.203975 2.578483 -3.253333 128 128 128
4.213333 2.586480 -3.226667 128 128 128
4.303384 2.630981 -3.235615 128 128 128
4.276718 2.619629 -3.253333 128 128 128
4.266667 2.600959 -3.226667 128 128 128
4.332288 2.630981 -3.208949 128 128 128
3.893333 3.173333 -3.314089 128 128 128
3.866667 3.146667 -3.302319 128 128 128
3.973333 3.173333 -3.337378 128 128 128
3.946667 3.146667 -3.328287 128 128 128
4.035479 3.179838 -3.354981 128 128 128
4.053333 3.153172 -3.348109 128 128 128
4.026667 3.146667 -3.340649 128 128 128
4.101828 3.153172 -3.353128 128 128 128
4.128495 3.173333 -3.350685 128 128 128
4.133333 3.146667 -3.348140 128 128 128
4.194928 3.173333 -3.357557 128 128 128
4.177683 3.146667 -3.355012 128 128 128
4.301619 3.136180 -3.355175 128 128 128
4.332496 3.162846 -3.355175 128 128 128
4.359162 3.173333 -3.348810 128 128 128
4.373333 3.146667 -3.329045 128 128 128
4.426159 3.146667 -3.286902 128 128 128
4.422105 3.173333 -3.307204 128 128 128
3.893333 3.093333 -3.307471 128 128 128
3.866667 3.066667 -3.295857 128 128 128
3.973333 3.093333 -3.325516 128 128 128
3.946667 3.066667 -3.316470 128 128 128
4.053333 3.093333 -3.343184 128 128 128
4.026667 3.066667 -3.337142 128 128 128
4.141740 3.084107 -3.357456 128 128 128
4.115073 3.066667 -3.354972 128 128 128
4.106667 3.093333 -3.348100 128 128 128
4.177683 3.110774 -3.357456 128 128 128
4.301619 3.093333 -3.346579 128 128 128
4.291288 3.066667 -3.351404 128 128 128
4.373333 3.093333 -3.311469 128 128 128
4.346667 3.066667 -3.322638 128 128 128
4.405717 3.066667 -3.282726 128 128 128
4.404053 3.093333 -3.289628 128 128 128
3.893333 3.013333 -3.302881 128 128 128
3.866667 2.986667 -3.294106 128 128 128
3.973333 3.013333 -3.321208 128 128 128
3.946667 2.986667 -3.319232 128 128 128
4.053333 3.013333 -3.334756 128 128 128
4.026667 2.986667 -3.327868 128 128 128
4.102895 3.013333 -3.357516 128 128 128
4.094489 2.986667 -3.347670 128 128 128
4.234134 2.963852 -3.358384 128 128 128
4.256335 2.990519 -3.358384 128 128 128
4.283002 3.013333 -3.349788 128 128 128
4.293334 2.986667 -3.332110 128 128 128
4.362088 2.977496 -3.288989 128 128 128
4.373333 3.004163 -3.291715 128 128 128
4.346667 3.013333 -3.309786 128 128 128
4.401664 3.030829 -3.282726 128 128 128
3.843794 2.923091 -3.281386 128 128 128
3.870461 2.906667 -3.290996 128 128 128
3.893333 2.933333 -3.302773 128 128 128
3.973333 2.933333 -3.324099 128 128 128
3.946667 2.906667 -3.316414 128 128 128
4.053333 2.933333 -3.340199 128 128 128
4.026667 2.906667 -3.338407 128 128 128
4.098669 2.933333 -3.350153 128 128 128
4.084179 2.906667 -3.349571 128 128 128
4.234134 2.933333 -3.356122 128 128 128
4.228239 2.906667 -3.357738 128 128 128
4.293041 2.880586 -3.304404 128 128 128
4.293334 2.907253 -3.313393 128 128 128
4.266667 2.933333 -3.338444 128 128 128
4.335422 2.933920 -3.288989 128 128 128
3.903958 2.826667 -3.295132 128 128 128
3.881085 2.853333 -3.289610 128 128 128
3.973333 2.853333 -3.320466 128 128 128
3.946667 2.826667 -3.310960 128 128 128
4.053333 2.853333 -3.342058 128 128 128
4.026667 2.826667 -3.331801 128 128 128
4.110847 2.868842 -3.359418 128 128 128
4.133333 2.842175 -3.354542 128 128 128
4.106667 2.826667 -3.348821 128 128 128
4.180771 2.842175 -3.355124 128 128 128
4.207438 2.853333 -3.352861 128 128 128
4.213333 2.826667 -3.340222 128 128 128
4.282095 2.826667 -3.294027 128 128 128
4.266375 2.853333 -3.318431 128 128 128
3.901575 2.746667 -3.291210 128 128 128
3.885533 2.773333 -3.285522 128 128 128
3.973333 2.773333 -3.316073 128 128 128
3.946667 2.746667 -3.305932 128 128 128
4.053333 2.773333 -3.338397 128 128 128
4.026667 2.746667 -3.332173 128 128 128
4.133333 2.773333 -3.344363 128 128 128
4.106667 2.746667 -3.344195 128 128 128
4.213333 2.773333 -3.325183 128 128 128
4.186667 2.746667 -3.332783 128 128 128
4.262290 2.746667 -3.289366 128 128 128
4.255721 2.773333 -3.303393 128 128 128
3.895521 2.666667 -3.293123 128 128 128
3.877095 2.693333 -3.285687 128 128 128
3.973333 2.693333 -3.319130 128 128 128
3.946667 2.666667 -3.311844 128 128 128
4.072351 2.677270 -3.354956 128 128 128
4.045684 2.666667 -3.347010 128 128 128
4.026667 2.693333 -3.335066 128 128 128
4.106667 2.703937 -3.349916 128 128 128
4.133333 2.688592 -3.354960 128 128 128
4.201614 2.651322 -3.350880 128 128 128
4.186667 2.677989 -3.345840 128 128 128
4.213333 2.693333 -3.328539 128 128 128
4.256619 2.666667 -3.297547 128 128 128
4.246569 2.693333 -3.306912 128 128 128
3.868854 2.638330 -3.287436 128 128 128
3.866667 2.611663 -3.295788 128 128 128
3.893333 2.586667 -3.312081 128 128 128
3.973333 2.613333 -3.322964 128 128 128
3.946667 2.586667 -3.320537 128 128 128
4.045684 2.614459 -3.352054 128 128 128
4.053333 2.587792 -3.351911 128 128 128
4.026667 2.586667 -3.342052 128 128 128
4.080595 2.561126 -3.359857 128 128 128
4.230642 2.575315 -3.302217 128 128 128
4.228281 2.622455 -3.350880 128 128 128
4.250051 2.622455 -3.324213 128 128 128
4.253149 2.595788 -3.333333 128 128 128
4.250051 2.601981 -3.302217 128 128 128
4.253149 2.586667 -3.328883 128 128 128
4.062145 3.179838 -3.368362 128 128 128
4.101828 3.179838 -3.368362 128 128 128
4.231016 3.146667 -3.364079 128 128 128
4.221595 3.173333 -3.361829 128 128 128
4.274952 3.136180 -3.362251 128 128 128
4.293334 3.162846 -3.364827 128 128 128
4.266667 3.173333 -3.366656 128 128 128
4.332496 3.189513 -3.362577 128 128 128
4.141740 3.057440 -3.364729 128 128 128
4.204349 3.110774 -3.362251 128 128 128
4.186667 3.084107 -3.366979 128 128 128
4.213333 3.066667 -3.372097 128 128 128
4.264621 3.066667 -3.365118 128 128 128
4.248285 3.093333 -3.367369 128 128 128
4.147822 2.986667 -3.368360 128 128 128
4.129562 3.013333 -3.364729 128 128 128
4.207468 2.963852 -3.363631 128 128 128
4.213333 2.990519 -3.368749 128 128 128
4.186667 3.013333 -3.373478 128 128 128
4.256335 3.017186 -3.365118 128 128 128
4.137513 2.906667 -3.366567 128 128 128
4.125335 2.933333 -3.363631 128 128 128
4.201572 2.906667 -3.362936 128 128 128
4.180801 2.933333 -3.366567 128 128 128
4.137513 2.868842 -3.362936 128 128 128
4.180771 2.868842 -3.362936 128 128 128
4.072351 2.650604 -3.362562 128 128 128
4.133333 2.661926 -3.363821 128 128 128
4.106667 2.650604 -3.366383 128 128 128
4.174947 2.651322 -3.363821 128 128 128
4.072351 2.614459 -3.362562 128 128 128
4.080595 2.587792 -3.362562 128 128 128
4.107262 2.586667 -3.370213 128 128 128
4.133333 2.613333 -3.374034 128 128 128
4.228281 2.595788 -3.361663 128 128 128
4.201614 2.613333 -3.365484 128 128 128
4.186667 2.586667 -3.373135 128 128 128
4.243098 2.569122 -3.361663 128 128 128
3.594536 0.325464 -1.930239 128 128 128
3.605464 0.325464 -1.930239 128 128 128
3.671578 0.324274 -1.995726 128 128 128
3.733333 0.326345 -1.989380 128 128 128
3.706667 0.330619 -1.995726 128 128 128
3.766566 0.326345 -1.993655 128 128 128
3.253333 0.266403 -1.946667 128 128 128
3.226667 0.266924 -1.973333 128 128 128
3.333333 0.267374 -1.946667 128 128 128
3.306667 0.268347 -1.973333 128 128 128
3.413333 0.270755 -1.946667 128 128 128
3.386667 0.269985 -1.973333 128 128 128
3.493333 0.278913 -1.946667 128 128 128
3.466667 0.278043 -1.973333 128 128 128
3.567869 0.304890 -1.930239 128 128 128
3.573333 0.295167 -1.956905 128 128 128
3.546667 0.285053 -1.973333 128 128 128
3.671578 0.306051 -1.969059 128 128 128
3.644911 0.296328 -1.973333 128 128 128
3.632131 0.306051 -1.930239 128 128 128
3.626667 0.296328 -1.956905 128 128 128
3.674496 0.329778 -2.053333 128 128 128
3.666074 0.324274 -2.026667 128 128 128
3.712613 0.325504 -2.060167 128 128 128
3.733333 0.331849 -2.033500 128 128 128
3.706667 0.336123 -2.026667 128 128 128
3.766566 0.326345 -2.006834 128 128 128
3.253333 0.269036 -2.026667 128 128 128
3.226667 0.268537 -2.053333 128 128 128
3.333333 0.271593 -2.026667 128 128 128
3.306667 0.271761 -2.053333 128 128 128
3.413333 0.272995 -2.026667 128 128 128
3.386667 0.273629 -2.053333 128 128 128
3.493333 0.278651 -2.026667 128 128 128
3.466667 0.274372 -2.053333 128 128 128
3.573333 0.285585 -2.026667 128 128 128
3.546667 0.280053 -2.053333 128 128 128
3.639407 0.310277 -2.026667 128 128 128
3.621163 0.295699 -2.053333 128 128 128
3.674496 0.325504 -2.091598 128 128 128
3.685946 0.325504 -2.091598 128 128 128
3.253333 0.271058 -2.106667 128 128 128
3.226667 0.270725 -2.133333 128 128 128
3.333333 0.273130 -2.106667 128 128 128
3.306667 0.272925 -2.133333 128 128 128
3.413333 0.276206 -2.106667 128 128 128
3.386667 0.275539 -2.133333 128 128 128
3.493333 0.276896 -2.106667 128 128 128
3.466667 0.278097 -2.133333 128 128 128
3.685946 0.306458 -2.118264 128 128 128
3.712613 0.286050 -2.106667 128 128 128
3.733333 0.264368 -2.133333 128 128 128
3.253333 0.272176 -2.186667 128 128 128
3.226667 0.270586 -2.213333 128 128 128
3.333333 0.275297 -2.186667 128 128 128
3.306667 0.274880 -2.213333 128 128 128
3.413333 0.276917 -2.186667 128 128 128
3.386667 0.276880 -2.213333 128 128 128
3.493333 0.277922 -2.186667 128 128 128
3.466667 0.277409 -2.213333 128 128 128
3.253333 0.271022 -2.266667 128 128 128
3.226667 0.267412 -2.293333 128 128 128
3.333333 0.276812 -2.266667 128 128 128
3.306667 0.274544 -2.293333 128 128 128
3.413333 0.278508 -2.266667 128 128 128
3.386667 0.278856 -2.293333 128 128 128
3.493333 0.274320 -2.266667 128 128 128
3.466667 0.275456 -2.293333 128 128 128
3.219662 0.247581 -2.354248 128 128 128
3.246329 0.254585 -2.373333 128 128 128
3.253333 0.264892 -2.346667 128 128 128
3.333333 0.273023 -2.346667 128 128 128
3.306667 0.266980 -2.373333 128 128 128
3.399631 0.249669 -2.388346 128 128 128
3.413333 0.262904 -2.361680 128 128 128
3.386667 0.275951 -2.346667 128 128 128
3.463165 0.253235 -2.361680 128 128 128
3.489831 0.256582 -2.373333 128 128 128
3.493333 0.266105 -2.346667 128 128 128
3.573333 0.269437 -2.346667 128 128 128
3.546667 0.265393 -2.373333 128 128 128
3.653333 0.271267 -2.346667 128 128 128
3.626667 0.270080 -2.373333 128 128 128
3.238246 0.213333 -2.380914 128 128 128
3.218584 0.186667 -2.364211 128 128 128
3.231592 0.133333 -2.383296 128 128 128
3.213008 0.106667 -2.371403 128 128 128
3.213008 0.063942 -2.388107 128 128 128
3.272995 0.247004 -2.407004 128 128 128
3.333333 0.256674 -2.415086 128 128 128
3.306667 0.247004 -2.422091 128 128 128
3.372964 0.249669 -2.415086 128 128 128
3.516498 0.243347 -2.404126 128 128 128
3.573333 0.255870 -2.414444 128 128 128
3.546667 0.243347 -2.418570 128 128 128
3.813333 0.267938 -2.426667 128 128 128
3.786667 0.280219 -2.453333 128 128 128
3.271918 0.186667 -2.415070 128 128 128
3.264913 0.213333 -2.407004 128 128 128
3.354519 0.196588 -2.468420 128 128 128
3.327852 0.186667 -2.449818 128 128 128
3.306667 0.213333 -2.430156 128 128 128
3.266341 0.106667 -2.419405 128 128 128
3.258259 0.133333 -2.408065 128 128 128
3.318754 0.133333 -2.461399 128 128 128
3.297569 0.106667 -2.446072 128 128 128
3.239675 0.063942 -2.411340 128 128 128
3.226667 0.037275 -2.418404 128 128 128
3.253333 0.026667 -2.434664 128 128 128
3.313011 0.053333 -2.464674 128 128 128
3.295442 0.026667 -2.454267 128 128 128
3.813333 0.271594 -2.496604 128 128 128
3.786667 0.257713 -2.516890 128 128 128
3.354519 0.169921 -2.485481 128 128 128
3.368297 0.169921 -2.485481 128 128 128
3.350902 0.106667 -2.494061 128 128 128
3.345421 0.133333 -2.485481 128 128 128
3.376879 0.106667 -2.488580 128 128 128
3.368297 0.133333 -2.494061 128 128 128
3.348776 0.026667 -2.496323 128 128 128
3.339678 0.053333 -2.488580 128 128 128
3.430895 -0.718201 -2.570997 128 128 128
3.253333 -0.739905 -2.586667 128 128 128
3.226667 -0.738955 -2.613333 128 128 128
3.333333 -0.736697 -2.586667 128 128 128
3.306667 -0.739132 -2.613333 128 128 128
3.404228 -0.724438 -2.570997 128 128 128
3.413333 -0.728846 -2.597663 128 128 128
3.386667 -0.734593 -2.613333 128 128 128
3.333333 -0.736606 -2.666667 128 128 128
3.306667 -0.732739 -2.693333 128 128 128
3.413333 -0.736536 -2.666667 128 128 128
3.386667 -0.736114 -2.693333 128 128 128
3.493333 -0.737977 -2.666667 128 128 128
3.466667 -0.733805 -2.693333 128 128 128
3.413333 -0.694791 -2.777673 128 128 128
3.386667 -0.682036 -2.788210 128 128 128
3.453961 -0.668124 -2.789462 128 128 128
3.480627 -0.666667 -2.789033 128 128 128
3.493333 -0.693333 -2.771539 128 128 128
3.567675 -0.640640 -2.799571 128 128 128
3.573333 -0.667307 -2.790685 128 128 128
3.546667 -0.693333 -2.773191 128 128 128
3.653333 -0.708142 -2.773709 128 128 128
3.626667 -0.682116 -2.791114 128 128 128
3.386667 -0.730366 -2.734877 128 128 128
3.413333 -0.726380 -2.751006 128 128 128
3.466667 -0.729397 -2.736129 128 128 128
3.493333 -0.723017 -2.745301 128 128 128
3.546667 -0.727643 -2.729173 128 128 128
3.573333 -0.724626 -2.746953 128 128 128
3.626667 -0.725729 -2.737781 128 128 128
3.653333 -0.721103 -2.747042 128 128 128
3.453961 -0.641458 -2.800394 128 128 128
3.594342 -0.640640 -2.800139 128 128 128
3.626667 -0.655449 -2.800139 128 128 128
3.653333 -0.654809 -2.805980 128 128 128
3.692406 -0.681476 -2.805841 128 128 128
3.719072 -0.693333 -2.810827 128 128 128
3.733333 -0.666667 -2.825490 128 128 128
3.745739 -0.723831 -2.804986 128 128 128
3.736251 0.586667 -3.223756 128 128 128
3.710527 0.613333 -3.211501 128 128 128
3.807999 0.613333 -3.264834 128 128 128
3.783124 0.586667 -3.250422 128 128 128
3.733974 0.506667 -3.225923 128 128 128
3.710225 0.533333 -3.212255 128 128 128
3.804062 0.533333 -3.265589 128 128 128
3.780939 0.506667 -3.252590 128 128 128
3.734629 0.426667 -3.223912 128 128 128
3.708603 0.453333 -3.213668 128 128 128
3.803954 0.453333 -3.267001 128 128 128
3.783016 0.426667 -3.250578 128 128 128
3.707963 0.387080 -3.210244 128 128 128
3.706667 0.360413 -3.210782 128 128 128
3.733333 0.346667 -3.222828 128 128 128
3.807639 0.373333 -3.263577 128 128 128
3.784624 0.346667 -3.248956 128 128 128
3.733333 0.293333 -3.228070 128 128 128
3.706667 0.266667 -3.220056 128 128 128
3.805372 0.293333 -3.265379 128 128 128
3.780749 0.266667 -3.254199 128 128 128
3.733333 0.213333 -3.233553 128 128 128
3.706667 0.186667 -3.219001 128 128 128
3.802938 0.213333 -3.268819 128 128 128
3.782189 0.186667 -3.256188 128 128 128
3.687272 0.129798 -3.200934 128 128 128
3.713939 0.106667 -3.214425 128 128 128
3.733333 0.133333 -3.228460 128 128 128
3.800044 0.133333 -3.267369 128 128 128
3.777854 0.106667 -3.254192 128 128 128
3.797027 0.053333 -3.266823 128 128 128
3.779172 0.026667 -3.252734 128 128 128
3.836457 0.586667 -3.282853 128 128 128
3.834665 0.613333 -3.280969 128 128 128
3.834272 0.506667 -3.284841 128 128 128
3.830729 0.533333 -3.281884 128 128 128
3.836349 0.426667 -3.285149 128 128 128
3.830621 0.453333 -3.282957 128 128 128
3.837957 0.346667 -3.283212 128 128 128
3.834306 0.373333 -3.282191 128 128 128
3.253333 -0.786785 -3.866667 128 128 128
3.226667 -0.772184 -3.893333 128 128 128
3.253333 -0.719143 -3.985671 128 128 128
3.226667 -0.709422 -3.986799 128 128 128
3.282081 -0.719143 -3.998871 128 128 128
3.226667 -0.747498 -3.933466 128 128 128
3.253333 -0.740489 -3.959004 128 128 128
3.343727 -0.782955 -3.955680 128 128 128
3.317060 -0.776777 -3.946667 128 128 128
3.308748 -0.750111 -3.973333 128 128 128
3.282081 -0.740489 -3.972204 128 128 128
3.244028 -0.641592 -4.076492 128 128 128
3.226667 -0.658538 -4.049825 128 128 128
3.253333 -0.684347 -4.026667 128 128 128
3.335415 -0.708544 -4.039511 128 128 128
3.308748 -0.707687 -4.026667 128 128 128
3.306667 -0.682613 -4.053333 128 128 128
3.385631 -0.708544 -4.066178 128 128 128
3.335415 -0.729622 -4.012845 128 128 128
3.412298 -0.720409 -4.066178 128 128 128
3.386667 -0.730031 -4.039511 128 128 128
3.413333 -0.753382 -4.026667 128 128 128
3.270695 -0.641592 -4.081942 128 128 128
3.306667 -0.656803 -4.081942 128 128 128
3.333333 -0.655211 -4.097517 128 128 128
3.438964 -0.697595 -4.107196 128 128 128
3.412298 -0.686139 -4.106667 128 128 128
3.405696 -0.659472 -4.133333 128 128 128
3.379029 -0.655211 -4.122241 128 128 128
3.493333 -0.708683 -4.118239 128 128 128
3.466667 -0.686278 -4.133862 128 128 128
3.438964 -0.720409 -4.080529 128 128 128
3.466667 -0.728635 -4.080529 128 128 128
3.493333 -0.728226 -4.091572 128 128 128
3.432363 -0.644261 -4.164757 128 128 128
3.466667 -0.659611 -4.164757 128 128 128
3.493333 -0.655350 -4.180121 128 128 128
3.569005 -0.642629 -4.228697 128 128 128
3.546667 -0.657979 -4.202031 128 128 128
3.573333 -0.666711 -4.186667 128 128 128
3.595671 -0.642629 -4.242282 128 128 128
3.609508 -0.642629 -4.242282 128 128 128
3.756599 -0.693333 -4.249227 128 128 128
3.739793 -0.666667 -4.246537 128 128 128
3.756599 -0.722137 -4.242691 128 128 128
3.834200 -0.654069 -4.323852 128 128 128
2.313001 -0.666667 -2.153274 128 128 128
2.304178 -0.693333 -2.155791 128 128 128
2.373333 -0.666667 -2.155502 128 128 128
2.346667 -0.693333 -2.151695 128 128 128
2.403433 -0.666667 -2.159598 128 128 128
2.402906 -0.693333 -2.158019 128 128 128
2.294814 -0.666667 -2.186667 128 128 128
2.281347 -0.693333 -2.213333 128 128 128
2.456239 -0.693333 -2.185037 128 128 128
2.430100 -0.666667 -2.175491 128 128 128
2.524738 -0.655234 -2.228825 128 128 128
2.533333 -0.681901 -2.217760 128 128 128
2.506667 -0.693333 -2.200639 128 128 128
2.456239 -0.738735 -2.169546 128 128 128
2.506667 -0.750555 -2.169546 128 128 128
2.533333 -0.731819 -2.185148 128 128 128
2.299535 -0.693333 -2.284807 128 128 128
2.290171 -0.666667 -2.261513 128 128 128
2.323833 -0.666667 -2.314847 128 128 128
2.321565 -0.693333 -2.311474 128 128 128
2.551405 -0.655234 -2.245435 128 128 128
2.321565 -0.723965 -2.316628 128 128 128
2.374899 -0.708238 -2.366832 128 128 128
2.365999 -0.681571 -2.373333 128 128 128
2.341600 -0.666667 -2.346667 128 128 128
2.404778 -0.708238 -2.393498 128 128 128
2.293333 -0.769402 -2.346667 128 128 128
2.266667 -0.779054 -2.373333 128 128 128
2.348232 -0.723965 -2.340165 128 128 128
2.373333 -0.732173 -2.366832 128 128 128
2.346667 -0.754029 -2.373333 128 128 128
2.404778 -0.728209 -2.393498 128 128 128
2.378492 -0.650829 -2.453333 128 128 128
2.391100 -0.665733 -2.426667 128 128 128
2.404778 -0.692400 -2.426667 128 128 128
2.421930 -0.704162 -2.453333 128 128 128
2.293333 -0.782139 -2.411419 128 128 128
2.266667 -0.786950 -2.435260 128 128 128
2.373333 -0.776731 -2.418889 128 128 128
2.346667 -0.795189 -2.430308 128 128 128
2.408132 -0.781542 -2.445555 128 128 128
2.412910 -0.754875 -2.426667 128 128 128
2.430062 -0.746667 -2.453333 128 128 128
2.408132 -0.804736 -2.472222 128 128 128
2.334059 -0.662839 -2.518143 128 128 128
2.360726 -0.673668 -2.506667 128 128 128
2.373333 -0.683985 -2.533333 128 128 128
2.417152 -0.687813 -2.506667 128 128 128
2.432612 -0.703651 -2.533333 128 128 128
2.373333 -0.797823 -2.539781 128 128 128
2.346667 -0.775281 -2.544940 128 128 128
2.411766 -0.797823 -2.554841 128 128 128
2.468793 -0.769748 -2.556864 128 128 128
2.450258 -0.773333 -2.530197 128 128 128
2.440744 -0.746667 -2.506667 128 128 128
2.487161 -0.796415 -2.556864 128 128 128
2.487161 -0.801757 -2.556864 128 128 128
3.836332 0.188027 -2.773333 128 128 128
3.821630 0.185600 -2.746667 128 128 128
3.825298 0.127719 -2.744468 128 128 128
3.816714 0.106667 -2.771135 128 128 128
3.813045 0.133333 -2.773333 128 128 128
3.836332 0.162427 -2.801872 128 128 128
3.835799 0.109221 -2.855206 128 128 128
3.832131 0.133333 -2.828539 128 128 128
3.823547 0.106667 -2.826667 128 128 128
3.831416 0.051202 -2.823271 128 128 128
3.815913 0.026667 -2.849937 128 128 128
3.811713 0.053333 -2.853333 128 128 128
3.835799 0.082554 -2.882786 128 128 128
3.360578 0.001333 -2.959474 128 128 128
3.833203 0.030986 -2.936119 128 128 128
3.829002 0.053333 -2.909452 128 128 128
3.813500 0.026667 -2.906667 128 128 128
3.833203 0.004319 -2.965080 128 128 128
3.521943 0.570395 -3.118873 128 128 128
3.522068 0.533333 -3.118873 128 128 128
3.520124 0.506667 -3.118801 128 128 128
3.520124 0.479499 -3.119929 128 128 128
3.520196 0.320699 -3.119889 128 128 128
3.653333 0.613333 -3.188305 128 128 128
3.626667 0.586667 -3.179172 128 128 128
3.683860 0.613333 -3.199593 128 128 128
3.682917 0.586667 -3.198303 128 128 128
3.653333 0.533333 -3.188833 128 128 128
3.626667 0.506667 -3.181206 128 128 128
3.683558 0.533333 -3.198710 128 128 128
3.680641 0.506667 -3.198373 128 128 128
3.653333 0.453333 -3.190213 128 128 128
3.626667 0.426667 -3.180267 128 128 128
3.681937 0.453333 -3.199663 128 128 128
3.681296 0.426667 -3.199131 128 128 128
3.679061 0.360413 -3.199468 128 128 128
3.652394 0.346667 -3.188903 128 128 128
3.626667 0.373333 -3.178619 128 128 128
3.681296 0.387080 -3.199468 128 128 128
3.645721 0.293333 -3.189435 128 128 128
3.619993 0.266667 -3.179558 128 128 128
3.645036 0.213333 -3.190123 128 128 128
3.625043 0.186667 -3.179481 128 128 128
3.651710 0.156465 -3.189357 128 128 128
3.653333 0.129798 -3.184015 128 128 128
3.626667 0.106667 -3.169357 128 128 128
3.687272 0.103131 -3.194658 128 128 128
3.695424 0.053333 -3.194658 128 128 128
3.688151 0.026667 -3.188514 128 128 128
2.581258 -0.026667 -1.588565 128 128 128
2.568384 -0.053333 -1.579022 128 128 128
2.579131 -0.106667 -1.590457 128 128 128
2.570747 -0.133333 -1.578642 128 128 128
2.581185 -0.186667 -1.588185 128 128 128
2.570438 -0.213333 -1.576576 128 128 128
2.621717 -0.053333 -1.635270 128 128 128
2.607924 -0.026667 -1.616081 128 128 128
2.693333 -0.026667 -1.656808 128 128 128
2.666667 -0.053333 -1.657325 128 128 128
2.624080 -0.133333 -1.638526 128 128 128
2.605798 -0.106667 -1.619189 128 128 128
2.693333 -0.106667 -1.660500 128 128 128
2.666667 -0.133333 -1.657782 128 128 128
2.623771 -0.213333 -1.638713 128 128 128
2.607852 -0.186667 -1.619338 128 128 128
2.871808 -0.026667 -1.814666 128 128 128
2.863739 -0.053333 -1.832632 128 128 128
2.871931 -0.106667 -1.819552 128 128 128
2.861035 -0.133333 -1.826920 128 128 128
2.718465 -0.478142 -1.838656 128 128 128
2.638887 -0.557391 -1.761573 128 128 128
2.638461 -0.613333 -1.765275 128 128 128
2.637348 -0.586667 -1.761573 128 128 128
2.845583 -0.026667 -1.866667 128 128 128
2.835238 -0.053333 -1.893333 128 128 128
2.799852 -0.159562 -1.919792 128 128 128
2.808129 -0.132896 -1.919792 128 128 128
2.823900 -0.133333 -1.893125 128 128 128
2.842497 -0.106667 -1.866667 128 128 128
2.799852 -0.186667 -1.918059 128 128 128
2.798676 -0.213333 -1.918267 128 128 128
2.832278 -0.213333 -1.864934 128 128 128
2.815771 -0.186667 -1.891393 128 128 128
2.798824 -0.248286 -1.918267 128 128 128
2.816507 -0.248286 -1.891601 128 128 128
2.819399 -0.274953 -1.893333 128 128 128
2.835521 -0.293333 -1.866667 128 128 128
2.791003 -0.381823 -1.916659 128 128 128
2.869454 -0.371585 -1.866667 128 128 128
2.845680 -0.345437 -1.893333 128 128 128
2.822494 -0.381823 -1.916659 128 128 128
2.718465 -0.478142 -1.846479 128 128 128
2.791003 -0.426667 -1.905126 128 128 128
2.773145 -0.453333 -1.908468 128 128 128
2.722871 -0.478142 -1.846479 128 128 128
2.878680 -0.432422 -1.866667 128 128 128
2.852013 -0.427749 -1.889992 128 128 128
2.825346 -0.453333 -1.878459 128 128 128
2.849160 -0.401082 -1.916659 128 128 128
2.718085 -0.533333 -1.851076 128 128 128
2.716550 -0.506667 -1.846479 128 128 128
2.746667 -0.525087 -1.851076 128 128 128
2.749537 -0.498421 -1.846479 128 128 128
2.758509 -0.551754 -1.871264 128 128 128
2.782143 -0.498421 -1.881801 128 128 128
2.767319 -0.525087 -1.893333 128 128 128
2.709435 -0.613333 -1.860110 128 128 128
2.707520 -0.586667 -1.844597 128 128 128
2.745471 -0.586667 -1.897931 128 128 128
2.733628 -0.613333 -1.886776 128 128 128
4.533333 1.157095 -2.266362 128 128 128
4.506667 1.135028 -2.280986 128 128 128
4.506667 1.096377 -2.307652 128 128 128
4.533333 1.096123 -2.319696 128 128 128
4.551117 0.805259 -2.281644 128 128 128
4.524451 0.815638 -2.266667 128 128 128
4.506667 0.829113 -2.293333 128 128 128
4.693708 1.226667 -2.369435 128 128 128
4.679250 1.253333 -2.343295 128 128 128
4.555301 1.125204 -2.375473 128 128 128
4.613557 1.146363 -2.343533 128 128 128
4.571222 1.125204 -2.375473 128 128 128
4.644051 1.146363 -2.370200 128 128 128
4.644426 1.173029 -2.346667 128 128 128
4.671093 1.172762 -2.373333 128 128 128
4.693708 1.199429 -2.372807 128 128 128
4.555301 1.119746 -2.348807 128 128 128
4.528634 1.104241 -2.373333 128 128 128
4.506667 1.080619 -2.346667 128 128 128
4.597889 1.116780 -2.375473 128 128 128
4.586667 1.116526 -2.348807 128 128 128
4.613557 1.116780 -2.370200 128 128 128
4.586890 1.116526 -2.346667 128 128 128
4.644051 1.116780 -2.396866 128 128 128
4.533333 0.818734 -2.321330 128 128 128
4.506667 0.813475 -2.330178 128 128 128
4.561867 0.805259 -2.321330 128 128 128
4.531462 0.733999 -2.342800 128 128 128
4.533333 0.760666 -2.344129 128 128 128
4.506667 0.773333 -2.352978 128 128 128
4.561867 0.787333 -2.321330 128 128 128
4.504796 0.707466 -2.369467 128 128 128
4.531462 0.703191 -2.346667 128 128 128
4.533333 0.694315 -2.373333 128 128 128
4.613138 0.657791 -2.399624 128 128 128
4.613333 0.662941 -2.372957 128 128 128
4.586667 0.685333 -2.346667 128 128 128
4.731584 1.253333 -2.426667 128 128 128
4.736534 1.226667 -2.453333 128 128 128
4.555301 1.125204 -2.405340 128 128 128
4.571222 1.125204 -2.405340 128 128 128
4.629911 1.135778 -2.462975 128 128 128
4.670718 1.146095 -2.409642 128 128 128
4.666667 1.161874 -2.436309 128 128 128
4.693333 1.185610 -2.453333 128 128 128
4.727940 1.199429 -2.426667 128 128 128
4.727310 1.196498 -2.453333 128 128 128
4.494098 1.051162 -2.436944 128 128 128
4.516065 1.077829 -2.426667 128 128 128
4.542732 1.081203 -2.453333 128 128 128
4.555301 1.107870 -2.432007 128 128 128
4.629911 1.116780 -2.436309 128 128 128
4.603244 1.104650 -2.453333 128 128 128
4.597889 1.116780 -2.405340 128 128 128
4.586667 1.104650 -2.432007 128 128 128
4.644051 1.116780 -2.409642 128 128 128
4.494098 1.025299 -2.463610 128 128 128
4.533333 0.671923 -2.405921 128 128 128
4.506667 0.654132 -2.413945 128 128 128
4.586472 0.657791 -2.405921 128 128 128
4.749081 1.253333 -2.506667 128 128 128
4.744679 1.226667 -2.533333 128 128 128
4.629911 1.135778 -2.493313 128 128 128
4.661711 1.135778 -2.519979 128 128 128
4.688377 1.147649 -2.533333 128 128 128
4.693333 1.171385 -2.506667 128 128 128
